# .PCD v.7 - Point Cloud Data file format
VERSION .7
FIELDS x y z
SIZE 4 4 4
TYPE I I I
COUNT 1 1 1
WIDTH 4238
HEIGHT 1
VIEWPOINT 0 0 0 1 0 0 0
POINTS 4238
DATA ascii
225 306 765
225 307 765
225 308 765
225 309 765
225 310 765
225 311 765
225 312 765
225 313 765
225 314 765
225 315 765
225 316 765
225 317 765
225 318 765
225 319 765
225 320 765
225 321 765
225 322 765
225 323 765
225 324 765
225 325 765
225 326 765
225 327 765
225 328 765
225 329 765
226 0 765
226 1 765
226 2 765
226 3 765
226 4 765
226 5 765
226 6 765
226 7 765
226 8 765
226 9 765
226 10 765
226 11 765
226 12 765
226 13 765
226 14 765
226 15 765
226 16 765
226 17 765
226 18 765
226 19 765
226 20 765
226 21 765
226 22 765
226 23 765
226 24 765
226 25 765
226 26 765
226 27 765
226 28 765
226 29 765
226 30 765
226 31 765
226 32 765
226 33 765
226 34 765
226 35 765
226 36 765
226 37 765
226 38 765
226 39 765
226 40 765
226 41 765
226 42 765
226 43 765
226 44 765
226 45 765
226 46 765
226 47 765
226 48 765
226 49 765
226 50 765
226 51 765
226 52 765
226 53 765
226 54 765
226 55 765
226 56 765
226 57 765
226 58 765
226 59 765
226 60 765
226 61 765
226 62 765
226 63 765
226 64 765
226 65 765
226 66 765
226 67 765
226 68 765
226 69 765
226 70 765
226 71 765
226 72 765
226 73 726
226 74 504
226 75 264
226 76 153
226 77 114
226 78 93
226 79 81
226 80 75
226 81 72
226 82 69
226 83 69
226 84 69
226 85 69
226 86 69
226 87 69
226 88 69
226 89 69
226 90 69
226 91 69
226 92 69
226 93 66
226 94 66
226 95 66
226 96 66
226 97 66
226 98 66
226 99 66
226 100 66
226 101 69
226 102 69
226 103 72
226 104 75
226 105 81
226 106 90
226 107 114
226 108 171
226 109 258
226 110 282
226 111 279
226 112 279
226 113 279
226 114 276
226 115 276
226 116 276
226 117 276
226 118 273
226 119 273
226 120 273
226 121 270
226 122 270
226 123 270
226 124 270
226 125 267
226 126 267
226 127 267
226 128 267
226 129 264
226 130 264
226 131 261
226 132 219
226 133 180
226 134 174
226 135 174
226 136 174
226 137 174
226 138 174
226 139 171
226 140 171
226 141 171
226 142 171
226 143 171
226 144 171
226 145 171
226 146 171
226 147 168
226 148 168
226 149 168
226 150 168
226 151 168
226 152 168
226 153 168
226 154 168
226 155 171
226 156 180
226 157 180
226 158 171
226 159 168
226 160 168
226 161 138
226 162 72
226 163 60
226 164 57
226 165 57
226 166 57
226 167 57
226 168 57
226 169 57
226 170 57
226 171 57
226 172 57
226 173 57
226 174 57
226 175 57
226 176 57
226 177 57
226 178 57
226 179 57
226 180 57
226 181 57
226 182 57
226 183 57
226 184 57
226 185 57
226 186 57
226 187 57
226 188 57
226 189 57
226 190 57
226 191 57
226 192 57
226 193 57
226 194 57
226 195 57
226 196 57
226 197 57
226 198 60
226 199 60
226 200 60
226 201 60
226 202 60
226 203 60
226 204 60
226 205 60
226 206 60
226 207 60
226 208 60
226 209 60
226 210 60
226 211 60
226 212 60
226 213 60
226 214 60
226 215 60
226 216 60
226 217 60
226 218 60
226 219 60
226 220 60
226 221 63
226 222 63
226 223 63
226 224 63
226 225 63
226 226 63
226 227 63
226 228 63
226 229 63
226 230 63
226 231 63
226 232 63
226 233 63
226 234 63
226 235 63
226 236 66
226 237 66
226 238 66
226 239 66
226 240 66
226 241 66
226 242 66
226 243 66
226 244 66
226 245 66
226 246 66
226 247 66
226 248 66
226 249 69
226 250 69
226 251 69
226 252 69
226 253 69
226 254 69
226 255 69
226 256 69
226 257 69
226 258 69
226 259 69
226 260 69
226 261 72
226 262 72
226 263 72
226 264 72
226 265 69
226 266 78
226 267 186
226 268 540
226 269 753
226 270 765
226 271 765
226 272 765
226 273 765
226 274 765
226 275 765
226 276 765
226 277 765
226 278 765
226 279 765
226 280 765
226 281 765
226 282 765
226 283 765
226 284 765
226 285 765
226 286 765
226 287 765
226 288 765
226 289 765
226 290 765
226 291 765
226 292 765
226 293 765
226 294 765
226 295 765
226 296 765
226 297 765
226 298 765
226 299 765
226 300 765
226 301 765
226 302 765
226 303 765
226 304 765
226 305 765
226 306 765
226 307 765
226 308 765
226 309 765
226 310 765
226 311 765
226 312 765
226 313 765
226 314 765
226 315 765
226 316 765
226 317 765
226 318 765
226 319 765
226 320 765
226 321 765
226 322 765
226 323 765
226 324 765
226 325 765
226 326 765
226 327 765
226 328 765
226 329 765
227 0 765
227 1 765
227 2 765
227 3 765
227 4 765
227 5 765
227 6 765
227 7 765
227 8 765
227 9 765
227 10 765
227 11 765
227 12 765
227 13 765
227 14 765
227 15 765
227 16 765
227 17 765
227 18 765
227 19 765
227 20 765
227 21 765
227 22 765
227 23 765
227 24 765
227 25 765
227 26 765
227 27 765
227 28 765
227 29 765
227 30 765
227 31 765
227 32 765
227 33 765
227 34 765
227 35 765
227 36 765
227 37 765
227 38 765
227 39 765
227 40 765
227 41 765
227 42 765
227 43 765
227 44 765
227 45 765
227 46 765
227 47 765
227 48 765
227 49 765
227 50 765
227 51 765
227 52 765
227 53 765
227 54 765
227 55 765
227 56 765
227 57 765
227 58 765
227 59 765
227 60 765
227 61 765
227 62 765
227 63 765
227 64 765
227 65 765
227 66 765
227 67 765
227 68 765
227 69 765
227 70 765
227 71 765
227 72 765
227 73 762
227 74 723
227 75 450
227 76 153
227 77 96
227 78 84
227 79 78
227 80 72
227 81 69
227 82 69
227 83 69
227 84 69
227 85 69
227 86 69
227 87 69
227 88 69
227 89 69
227 90 69
227 91 69
227 92 66
227 93 66
227 94 66
227 95 66
227 96 66
227 97 66
227 98 66
227 99 66
227 100 69
227 101 69
227 102 72
227 103 75
227 104 81
227 105 90
227 106 114
227 107 165
227 108 246
227 109 282
227 110 282
227 111 279
227 112 279
227 113 279
227 114 276
227 115 276
227 116 276
227 117 273
227 118 273
227 119 273
227 120 273
227 121 270
227 122 270
227 123 270
227 124 270
227 125 267
227 126 267
227 127 267
227 128 267
227 129 264
227 130 264
227 131 246
227 132 195
227 133 174
227 134 174
227 135 174
227 136 174
227 137 174
227 138 174
227 139 171
227 140 171
227 141 171
227 142 171
227 143 171
227 144 171
227 145 171
227 146 171
227 147 168
227 148 168
227 149 168
227 150 168
227 151 168
227 152 168
227 153 168
227 154 168
227 155 168
227 156 168
227 157 168
227 158 168
227 159 168
227 160 138
227 161 78
227 162 60
227 163 57
227 164 57
227 165 54
227 166 57
227 167 57
227 168 57
227 169 57
227 170 57
227 171 57
227 172 57
227 173 57
227 174 57
227 175 57
227 176 57
227 177 57
227 178 57
227 179 57
227 180 57
227 181 57
227 182 57
227 183 57
227 184 57
227 185 57
227 186 57
227 187 57
227 188 57
227 189 57
227 190 57
227 191 57
227 192 57
227 193 57
227 194 57
227 195 57
227 196 57
227 197 57
227 198 60
227 199 60
227 200 60
227 201 60
227 202 60
227 203 60
227 204 60
227 205 60
227 206 60
227 207 60
227 208 60
227 209 60
227 210 60
227 211 60
227 212 60
227 213 60
227 214 60
227 215 60
227 216 60
227 217 60
227 218 60
227 219 60
227 220 60
227 221 63
227 222 63
227 223 63
227 224 63
227 225 63
227 226 63
227 227 63
227 228 63
227 229 63
227 230 63
227 231 63
227 232 63
227 233 63
227 234 63
227 235 63
227 236 66
227 237 66
227 238 66
227 239 66
227 240 66
227 241 66
227 242 66
227 243 66
227 244 66
227 245 66
227 246 66
227 247 66
227 248 66
227 249 69
227 250 69
227 251 69
227 252 69
227 253 69
227 254 69
227 255 69
227 256 69
227 257 69
227 258 69
227 259 69
227 260 69
227 261 72
227 262 72
227 263 72
227 264 72
227 265 72
227 266 186
227 267 546
227 268 753
227 269 765
227 270 765
227 271 765
227 272 765
227 273 765
227 274 765
227 275 765
227 276 765
227 277 765
227 278 765
227 279 765
227 280 765
227 281 765
227 282 765
227 283 765
227 284 765
227 285 765
227 286 765
227 287 765
227 288 765
227 289 765
227 290 765
227 291 765
227 292 765
227 293 765
227 294 765
227 295 765
227 296 765
227 297 765
227 298 765
227 299 765
227 300 765
227 301 765
227 302 765
227 303 765
227 304 765
227 305 765
227 306 765
227 307 765
227 308 765
227 309 765
227 310 765
227 311 765
227 312 765
227 313 765
227 314 765
227 315 765
227 316 765
227 317 765
227 318 765
227 319 765
227 320 765
227 321 765
227 322 765
227 323 765
227 324 765
227 325 765
227 326 765
227 327 765
227 328 765
227 329 765
228 0 765
228 1 765
228 2 765
228 3 765
228 4 765
228 5 765
228 6 765
228 7 765
228 8 765
228 9 765
228 10 765
228 11 765
228 12 765
228 13 765
228 14 765
228 15 765
228 16 765
228 17 765
228 18 765
228 19 765
228 20 765
228 21 765
228 22 765
228 23 765
228 24 765
228 25 765
228 26 765
228 27 765
228 28 765
228 29 765
228 30 765
228 31 765
228 32 765
228 33 765
228 34 765
228 35 765
228 36 765
228 37 765
228 38 765
228 39 765
228 40 765
228 41 765
228 42 765
228 43 765
228 44 765
228 45 765
228 46 765
228 47 765
228 48 765
228 49 765
228 50 765
228 51 765
228 52 765
228 53 765
228 54 765
228 55 765
228 56 765
228 57 765
228 58 765
228 59 765
228 60 765
228 61 765
228 62 765
228 63 765
228 64 765
228 65 765
228 66 765
228 67 765
228 68 765
228 69 765
228 70 765
228 71 765
228 72 765
228 73 765
228 74 765
228 75 708
228 76 444
228 77 138
228 78 78
228 79 72
228 80 69
228 81 69
228 82 69
228 83 69
228 84 69
228 85 66
228 86 69
228 87 69
228 88 69
228 89 69
228 90 69
228 91 69
228 92 66
228 93 66
228 94 66
228 95 66
228 96 66
228 97 66
228 98 66
228 99 66
228 100 69
228 101 72
228 102 72
228 103 78
228 104 87
228 105 114
228 106 159
228 107 234
228 108 279
228 109 282
228 110 279
228 111 279
228 112 279
228 113 279
228 114 276
228 115 276
228 116 276
228 117 273
228 118 273
228 119 273
228 120 270
228 121 270
228 122 270
228 123 270
228 124 267
228 125 267
228 126 267
228 127 267
228 128 267
228 129 264
228 130 258
228 131 219
228 132 180
228 133 171
228 134 174
228 135 174
228 136 174
228 137 174
228 138 174
228 139 171
228 140 171
228 141 171
228 142 171
228 143 171
228 144 171
228 145 171
228 146 171
228 147 168
228 148 168
228 149 168
228 150 168
228 151 168
228 152 168
228 153 168
228 154 168
228 155 168
228 156 168
228 157 168
228 158 165
228 159 138
228 160 84
228 161 60
228 162 57
228 163 57
228 164 57
228 165 57
228 166 57
228 167 57
228 168 57
228 169 57
228 170 57
228 171 57
228 172 57
228 173 57
228 174 57
228 175 57
228 176 57
228 177 57
228 178 57
228 179 57
228 180 57
228 181 57
228 182 57
228 183 57
228 184 57
228 185 57
228 186 57
228 187 57
228 188 57
228 189 57
228 190 57
228 191 57
228 192 57
228 193 57
228 194 57
228 195 57
228 196 57
228 197 60
228 198 60
228 199 60
228 200 60
228 201 60
228 202 60
228 203 60
228 204 60
228 205 60
228 206 60
228 207 60
228 208 60
228 209 60
228 210 60
228 211 60
228 212 60
228 213 60
228 214 60
228 215 60
228 216 60
228 217 60
228 218 60
228 219 60
228 220 60
228 221 63
228 222 63
228 223 63
228 224 63
228 225 63
228 226 63
228 227 63
228 228 63
228 229 63
228 230 63
228 231 63
228 232 63
228 233 63
228 234 63
228 235 63
228 236 66
228 237 66
228 238 66
228 239 66
228 240 66
228 241 66
228 242 66
228 243 66
228 244 66
228 245 66
228 246 66
228 247 66
228 248 66
228 249 69
228 250 69
228 251 69
228 252 69
228 253 69
228 254 69
228 255 69
228 256 69
228 257 69
228 258 69
228 259 69
228 260 69
228 261 72
228 262 72
228 263 72
228 264 72
228 265 192
228 266 561
228 267 753
228 268 765
228 269 765
228 270 765
228 271 762
228 272 765
228 273 765
228 274 765
228 275 765
228 276 765
228 277 765
228 278 765
228 279 765
228 280 765
228 281 765
228 282 765
228 283 765
228 284 765
228 285 765
228 286 765
228 287 765
228 288 765
228 289 765
228 290 765
228 291 765
228 292 765
228 293 765
228 294 765
228 295 765
228 296 765
228 297 765
228 298 765
228 299 765
228 300 765
228 301 765
228 302 765
228 303 765
228 304 765
228 305 765
228 306 765
228 307 765
228 308 765
228 309 765
228 310 765
228 311 765
228 312 765
228 313 765
228 314 765
228 315 765
228 316 765
228 317 765
228 318 765
228 319 765
228 320 765
228 321 765
228 322 765
228 323 765
228 324 765
228 325 765
228 326 765
228 327 765
228 328 765
228 329 765
229 0 765
229 1 765
229 2 765
229 3 765
229 4 765
229 5 765
229 6 765
229 7 765
229 8 765
229 9 765
229 10 765
229 11 765
229 12 765
229 13 765
229 14 765
229 15 765
229 16 765
229 17 765
229 18 765
229 19 765
229 20 765
229 21 765
229 22 765
229 23 765
229 24 765
229 25 765
229 26 765
229 27 765
229 28 765
229 29 765
229 30 765
229 31 765
229 32 765
229 33 765
229 34 765
229 35 765
229 36 765
229 37 765
229 38 765
229 39 765
229 40 765
229 41 765
229 42 765
229 43 765
229 44 765
229 45 765
229 46 765
229 47 765
229 48 765
229 49 765
229 50 765
229 51 765
229 52 765
229 53 765
229 54 765
229 55 765
229 56 765
229 57 765
229 58 765
229 59 765
229 60 765
229 61 765
229 62 765
229 63 765
229 64 765
229 65 765
229 66 765
229 67 765
229 68 765
229 69 765
229 70 765
229 71 762
229 72 765
229 73 765
229 74 765
229 75 762
229 76 702
229 77 465
229 78 138
229 79 72
229 80 69
229 81 69
229 82 69
229 83 69
229 84 69
229 85 69
229 86 69
229 87 69
229 88 69
229 89 69
229 90 69
229 91 66
229 92 66
229 93 66
229 94 66
229 95 66
229 96 66
229 97 66
229 98 66
229 99 69
229 100 72
229 101 75
229 102 78
229 103 90
229 104 111
229 105 153
229 106 228
229 107 276
229 108 282
229 109 282
229 110 279
229 111 279
229 112 279
229 113 276
229 114 276
229 115 276
229 116 276
229 117 273
229 118 273
229 119 273
229 120 270
229 121 270
229 122 270
229 123 270
229 124 267
229 125 267
229 126 267
229 127 267
229 128 264
229 129 264
229 130 243
229 131 195
229 132 174
229 133 174
229 134 174
229 135 174
229 136 174
229 137 174
229 138 171
229 139 171
229 140 171
229 141 171
229 142 171
229 143 171
229 144 171
229 145 171
229 146 171
229 147 168
229 148 168
229 149 168
229 150 168
229 151 168
229 152 168
229 153 171
229 154 168
229 155 168
229 156 168
229 157 168
229 158 141
229 159 84
229 160 60
229 161 57
229 162 57
229 163 60
229 164 57
229 165 57
229 166 57
229 167 57
229 168 57
229 169 57
229 170 57
229 171 57
229 172 57
229 173 57
229 174 57
229 175 57
229 176 57
229 177 57
229 178 57
229 179 57
229 180 57
229 181 57
229 182 57
229 183 57
229 184 57
229 185 57
229 186 57
229 187 57
229 188 57
229 189 57
229 190 57
229 191 57
229 192 57
229 193 57
229 194 57
229 195 57
229 196 57
229 197 60
229 198 60
229 199 60
229 200 60
229 201 60
229 202 60
229 203 60
229 204 60
229 205 60
229 206 60
229 207 60
229 208 60
229 209 60
229 210 60
229 211 60
229 212 60
229 213 60
229 214 60
229 215 60
229 216 60
229 217 60
229 218 60
229 219 60
229 220 60
229 221 63
229 222 63
229 223 63
229 224 63
229 225 63
229 226 63
229 227 63
229 228 63
229 229 63
229 230 63
229 231 63
229 232 63
229 233 63
229 234 63
229 235 63
229 236 66
229 237 66
229 238 66
229 239 66
229 240 66
229 241 66
229 242 66
229 243 66
229 244 66
229 245 66
229 246 66
229 247 66
229 248 66
229 249 69
229 250 69
229 251 69
229 252 69
229 253 69
229 254 69
229 255 69
229 256 69
229 257 69
229 258 69
229 259 72
229 260 66
229 261 72
229 262 72
229 263 72
229 264 228
229 265 585
229 266 759
229 267 765
229 268 765
229 269 765
229 270 765
229 271 762
229 272 765
229 273 765
229 274 765
229 275 765
229 276 765
229 277 765
229 278 765
229 279 765
229 280 765
229 281 765
229 282 765
229 283 765
229 284 765
229 285 765
229 286 765
229 287 765
229 288 765
229 289 765
229 290 765
229 291 765
229 292 765
229 293 765
229 294 765
229 295 765
229 296 765
229 297 765
229 298 765
229 299 765
229 300 765
229 301 765
229 302 765
229 303 765
229 304 765
229 305 765
229 306 765
229 307 765
229 308 765
229 309 765
229 310 765
229 311 765
229 312 765
229 313 765
229 314 765
229 315 765
229 316 765
229 317 765
229 318 765
229 319 765
229 320 765
229 321 765
229 322 765
229 323 765
229 324 765
229 325 765
229 326 765
229 327 765
229 328 765
229 329 765
230 0 765
230 1 765
230 2 765
230 3 765
230 4 765
230 5 765
230 6 765
230 7 765
230 8 765
230 9 765
230 10 765
230 11 765
230 12 765
230 13 765
230 14 765
230 15 765
230 16 765
230 17 765
230 18 765
230 19 765
230 20 765
230 21 765
230 22 765
230 23 765
230 24 765
230 25 765
230 26 765
230 27 765
230 28 765
230 29 765
230 30 765
230 31 765
230 32 765
230 33 765
230 34 765
230 35 765
230 36 765
230 37 765
230 38 765
230 39 765
230 40 765
230 41 765
230 42 765
230 43 765
230 44 765
230 45 765
230 46 765
230 47 765
230 48 765
230 49 765
230 50 765
230 51 765
230 52 765
230 53 765
230 54 765
230 55 765
230 56 765
230 57 765
230 58 765
230 59 765
230 60 765
230 61 765
230 62 765
230 63 765
230 64 765
230 65 765
230 66 765
230 67 765
230 68 765
230 69 765
230 70 765
230 71 765
230 72 765
230 73 765
230 74 762
230 75 765
230 76 762
230 77 705
230 78 489
230 79 153
230 80 69
230 81 69
230 82 69
230 83 69
230 84 69
230 85 69
230 86 72
230 87 69
230 88 69
230 89 69
230 90 66
230 91 66
230 92 66
230 93 66
230 94 66
230 95 66
230 96 66
230 97 63
230 98 69
230 99 69
230 100 75
230 101 78
230 102 90
230 103 111
230 104 147
230 105 222
230 106 273
230 107 282
230 108 282
230 109 282
230 110 279
230 111 279
230 112 279
230 113 276
230 114 276
230 115 276
230 116 276
230 117 273
230 118 273
230 119 273
230 120 270
230 121 270
230 122 270
230 123 270
230 124 267
230 125 267
230 126 267
230 127 267
230 128 264
230 129 258
230 130 216
230 131 177
230 132 174
230 133 174
230 134 174
230 135 174
230 136 174
230 137 174
230 138 171
230 139 171
230 140 171
230 141 171
230 142 171
230 143 171
230 144 171
230 145 171
230 146 171
230 147 168
230 148 168
230 149 168
230 150 168
230 151 168
230 152 168
230 153 168
230 154 168
230 155 168
230 156 168
230 157 144
230 158 90
230 159 63
230 160 57
230 161 57
230 162 57
230 163 57
230 164 57
230 165 57
230 166 57
230 167 57
230 168 57
230 169 57
230 170 57
230 171 57
230 172 57
230 173 57
230 174 57
230 175 57
230 176 57
230 177 57
230 178 57
230 179 57
230 180 57
230 181 57
230 182 57
230 183 57
230 184 57
230 185 57
230 186 57
230 187 57
230 188 57
230 189 57
230 190 57
230 191 57
230 192 57
230 193 57
230 194 57
230 195 57
230 196 57
230 197 60
230 198 60
230 199 60
230 200 60
230 201 60
230 202 60
230 203 60
230 204 60
230 205 60
230 206 60
230 207 60
230 208 60
230 209 60
230 210 60
230 211 60
230 212 60
230 213 60
230 214 60
230 215 60
230 216 60
230 217 60
230 218 60
230 219 60
230 220 60
230 221 63
230 222 63
230 223 63
230 224 63
230 225 63
230 226 63
230 227 63
230 228 63
230 229 63
230 230 63
230 231 63
230 232 63
230 233 63
230 234 63
230 235 63
230 236 66
230 237 66
230 238 66
230 239 66
230 240 66
230 241 66
230 242 66
230 243 66
230 244 66
230 245 66
230 246 66
230 247 66
230 248 66
230 249 69
230 250 69
230 251 69
230 252 69
230 253 69
230 254 69
230 255 69
230 256 69
230 257 69
230 258 69
230 259 69
230 260 66
230 261 72
230 262 72
230 263 276
230 264 609
230 265 762
230 266 765
230 267 765
230 268 765
230 269 765
230 270 765
230 271 765
230 272 765
230 273 765
230 274 765
230 275 765
230 276 765
230 277 765
230 278 765
230 279 765
230 280 765
230 281 765
230 282 765
230 283 765
230 284 765
230 285 765
230 286 765
230 287 765
230 288 765
230 289 765
230 290 765
230 291 765
230 292 765
230 293 765
230 294 765
230 295 765
230 296 765
230 297 765
230 298 765
230 299 765
230 300 765
230 301 765
230 302 765
230 303 765
230 304 765
230 305 765
230 306 765
230 307 765
230 308 765
230 309 765
230 310 765
230 311 765
230 312 765
230 313 765
230 314 765
230 315 765
230 316 765
230 317 765
230 318 765
230 319 765
230 320 765
230 321 765
230 322 765
230 323 765
230 324 765
230 325 765
230 326 765
230 327 765
230 328 765
230 329 765
231 0 765
231 1 765
231 2 765
231 3 765
231 4 765
231 5 765
231 6 765
231 7 765
231 8 765
231 9 765
231 10 765
231 11 765
231 12 765
231 13 765
231 14 765
231 15 765
231 16 765
231 17 765
231 18 765
231 19 765
231 20 765
231 21 765
231 22 765
231 23 765
231 24 765
231 25 765
231 26 765
231 27 765
231 28 765
231 29 765
231 30 765
231 31 765
231 32 765
231 33 765
231 34 765
231 35 765
231 36 765
231 37 765
231 38 765
231 39 765
231 40 765
231 41 765
231 42 765
231 43 765
231 44 765
231 45 765
231 46 765
231 47 765
231 48 765
231 49 765
231 50 765
231 51 765
231 52 765
231 53 765
231 54 765
231 55 765
231 56 765
231 57 765
231 58 765
231 59 765
231 60 765
231 61 765
231 62 765
231 63 765
231 64 765
231 65 765
231 66 765
231 67 765
231 68 765
231 69 765
231 70 765
231 71 765
231 72 765
231 73 765
231 74 765
231 75 765
231 76 765
231 77 762
231 78 714
231 79 516
231 80 183
231 81 69
231 82 69
231 83 69
231 84 69
231 85 69
231 86 69
231 87 69
231 88 69
231 89 69
231 90 66
231 91 66
231 92 66
231 93 66
231 94 66
231 95 66
231 96 66
231 97 69
231 98 69
231 99 72
231 100 84
231 101 90
231 102 108
231 103 147
231 104 213
231 105 270
231 106 282
231 107 282
231 108 282
231 109 279
231 110 279
231 111 279
231 112 279
231 113 276
231 114 276
231 115 279
231 116 273
231 117 273
231 118 273
231 119 273
231 120 270
231 121 270
231 122 270
231 123 270
231 124 267
231 125 267
231 126 267
231 127 267
231 128 264
231 129 240
231 130 186
231 131 174
231 132 174
231 133 171
231 134 174
231 135 174
231 136 174
231 137 174
231 138 171
231 139 171
231 140 171
231 141 171
231 142 171
231 143 171
231 144 171
231 145 171
231 146 171
231 147 168
231 148 168
231 149 168
231 150 168
231 151 168
231 152 168
231 153 168
231 154 168
231 155 168
231 156 147
231 157 96
231 158 63
231 159 57
231 160 57
231 161 57
231 162 57
231 163 57
231 164 57
231 165 57
231 166 54
231 167 57
231 168 57
231 169 57
231 170 57
231 171 57
231 172 57
231 173 57
231 174 57
231 175 57
231 176 57
231 177 57
231 178 57
231 179 57
231 180 57
231 181 57
231 182 57
231 183 57
231 184 57
231 185 57
231 186 57
231 187 57
231 188 57
231 189 57
231 190 57
231 191 57
231 192 57
231 193 57
231 194 57
231 195 57
231 196 57
231 197 63
231 198 60
231 199 60
231 200 60
231 201 60
231 202 60
231 203 60
231 204 60
231 205 60
231 206 60
231 207 60
231 208 60
231 209 60
231 210 60
231 211 60
231 212 60
231 213 60
231 214 60
231 215 60
231 216 60
231 217 60
231 218 60
231 219 60
231 220 60
231 221 63
231 222 63
231 223 63
231 224 63
231 225 63
231 226 63
231 227 63
231 228 63
231 229 63
231 230 63
231 231 63
231 232 63
231 233 63
231 234 63
231 235 63
231 236 66
231 237 66
231 238 66
231 239 66
231 240 66
231 241 66
231 242 66
231 243 66
231 244 66
231 245 66
231 246 66
231 247 66
231 248 66
231 249 69
231 250 69
231 251 69
231 252 69
231 253 69
231 254 69
231 255 69
231 256 69
231 257 69
231 258 69
231 259 69
231 260 69
231 261 75
231 262 324
231 263 633
231 264 756
231 265 765
231 266 765
231 267 765
231 268 765
231 269 765
231 270 765
231 271 765
231 272 765
231 273 765
231 274 765
231 275 765
231 276 765
231 277 765
231 278 765
231 279 765
231 280 765
231 281 765
231 282 765
231 283 765
231 284 765
231 285 765
231 286 765
231 287 765
231 288 765
231 289 765
231 290 765
231 291 765
231 292 765
231 293 765
231 294 765
231 295 765
231 296 765
231 297 765
231 298 765
231 299 765
231 300 765
231 301 765
231 302 765
231 303 765
231 304 765
231 305 765
231 306 765
231 307 765
231 308 765
231 309 765
231 310 765
231 311 765
231 312 765
231 313 765
231 314 765
231 315 765
231 316 765
231 317 765
231 318 765
231 319 765
231 320 765
231 321 765
231 322 765
231 323 765
231 324 765
231 325 765
231 326 765
231 327 765
231 328 765
231 329 765
232 0 765
232 1 765
232 2 765
232 3 765
232 4 765
232 5 765
232 6 765
232 7 765
232 8 765
232 9 765
232 10 765
232 11 765
232 12 765
232 13 765
232 14 765
232 15 765
232 16 765
232 17 765
232 18 765
232 19 765
232 20 765
232 21 765
232 22 765
232 23 765
232 24 765
232 25 765
232 26 765
232 27 765
232 28 765
232 29 765
232 30 765
232 31 765
232 32 765
232 33 765
232 34 765
232 35 765
232 36 765
232 37 765
232 38 765
232 39 765
232 40 765
232 41 765
232 42 765
232 43 765
232 44 765
232 45 765
232 46 765
232 47 765
232 48 765
232 49 765
232 50 765
232 51 765
232 52 765
232 53 765
232 54 765
232 55 765
232 56 765
232 57 765
232 58 765
232 59 765
232 60 765
232 61 765
232 62 765
232 63 765
232 64 765
232 65 765
232 66 765
232 67 765
232 68 765
232 69 765
232 70 765
232 71 765
232 72 765
232 73 765
232 74 765
232 75 765
232 76 765
232 77 765
232 78 765
232 79 726
232 80 549
232 81 204
232 82 69
232 83 69
232 84 69
232 85 69
232 86 69
232 87 69
232 88 69
232 89 69
232 90 63
232 91 66
232 92 66
232 93 66
232 94 66
232 95 66
232 96 66
232 97 69
232 98 72
232 99 81
232 100 93
232 101 108
232 102 135
232 103 198
232 104 267
232 105 285
232 106 279
232 107 282
232 108 282
232 109 276
232 110 279
232 111 279
232 112 279
232 113 276
232 114 276
232 115 276
232 116 273
232 117 273
232 118 273
232 119 273
232 120 270
232 121 270
232 122 270
232 123 267
232 124 267
232 125 267
232 126 267
232 127 267
232 128 255
232 129 210
232 130 177
232 131 174
232 132 174
232 133 174
232 134 174
232 135 174
232 136 174
232 137 174
232 138 171
232 139 171
232 140 171
232 141 171
232 142 171
232 143 171
232 144 171
232 145 171
232 146 168
232 147 168
232 148 168
232 149 168
232 150 171
232 151 168
232 152 168
232 153 168
232 154 168
232 155 153
232 156 96
232 157 63
232 158 57
232 159 57
232 160 57
232 161 57
232 162 57
232 163 57
232 164 57
232 165 57
232 166 57
232 167 57
232 168 57
232 169 57
232 170 57
232 171 57
232 172 57
232 173 57
232 174 57
232 175 57
232 176 57
232 177 57
232 178 57
232 179 57
232 180 57
232 181 57
232 182 57
232 183 57
232 184 57
232 185 57
232 186 57
232 187 57
232 188 57
232 189 57
232 190 57
232 191 57
232 192 57
232 193 57
232 194 57
232 195 57
232 196 60
232 197 60
232 198 60
232 199 60
232 200 60
232 201 60
232 202 60
232 203 60
232 204 60
232 205 60
232 206 60
232 207 60
232 208 60
232 209 60
232 210 60
232 211 60
232 212 60
232 213 60
232 214 60
232 215 60
232 216 60
232 217 60
232 218 60
232 219 60
232 220 63
232 221 63
232 222 63
232 223 63
232 224 63
232 225 63
232 226 63
232 227 63
232 228 63
232 229 63
232 230 63
232 231 63
232 232 63
232 233 63
232 234 63
232 235 63
232 236 66
232 237 66
232 238 66
232 239 66
232 240 66
232 241 66
232 242 66
232 243 66
232 244 66
232 245 66
232 246 66
232 247 66
232 248 66
232 249 69
232 250 69
232 251 69
232 252 69
232 253 69
232 254 69
232 255 69
232 256 66
232 257 69
232 258 69
232 259 69
232 260 84
232 261 381
232 262 654
232 263 756
232 264 765
232 265 765
232 266 765
232 267 765
232 268 765
232 269 765
232 270 765
232 271 765
232 272 765
232 273 765
232 274 765
232 275 765
232 276 765
232 277 765
232 278 765
232 279 765
232 280 765
232 281 765
232 282 765
232 283 765
232 284 765
232 285 765
232 286 765
232 287 765
232 288 765
232 289 765
232 290 765
232 291 765
232 292 765
232 293 765
232 294 765
232 295 765
232 296 765
232 297 765
232 298 765
232 299 765
232 300 765
232 301 765
232 302 765
232 303 765
232 304 765
232 305 765
232 306 765
232 307 765
232 308 765
232 309 765
232 310 765
232 311 765
232 312 765
232 313 765
232 314 765
232 315 765
232 316 765
232 317 765
232 318 765
232 319 765
232 320 765
232 321 765
232 322 765
232 323 765
232 324 765
232 325 765
232 326 765
232 327 765
232 328 765
232 329 765
233 0 765
233 1 765
233 2 765
233 3 765
233 4 765
233 5 765
233 6 765
233 7 765
233 8 765
233 9 765
233 10 765
233 11 765
233 12 765
233 13 765
233 14 765
233 15 765
233 16 765
233 17 765
233 18 765
233 19 765
233 20 765
233 21 765
233 22 765
233 23 765
233 24 765
233 25 765
233 26 765
233 27 765
233 28 765
233 29 765
233 30 765
233 31 765
233 32 765
233 33 765
233 34 765
233 35 765
233 36 765
233 37 765
233 38 765
233 39 765
233 40 765
233 41 765
233 42 765
233 43 765
233 44 765
233 45 765
233 46 765
233 47 765
233 48 765
233 49 765
233 50 765
233 51 765
233 52 765
233 53 765
233 54 765
233 55 765
233 56 765
233 57 765
233 58 765
233 59 765
233 60 765
233 61 765
233 62 765
233 63 765
233 64 765
233 65 765
233 66 765
233 67 765
233 68 765
233 69 765
233 70 765
233 71 765
233 72 765
233 73 765
233 74 765
233 75 765
233 76 765
233 77 765
233 78 765
233 79 765
233 80 741
233 81 588
233 82 234
233 83 75
233 84 69
233 85 66
233 86 69
233 87 72
233 88 69
233 89 66
233 90 66
233 91 66
233 92 66
233 93 66
233 94 66
233 95 66
233 96 69
233 97 72
233 98 81
233 99 90
233 100 108
233 101 135
233 102 192
233 103 267
233 104 285
233 105 282
233 106 282
233 107 282
233 108 282
233 109 279
233 110 279
233 111 279
233 112 276
233 113 276
233 114 276
233 115 276
233 116 273
233 117 273
233 118 273
233 119 270
233 120 270
233 121 273
233 122 270
233 123 267
233 124 267
233 125 267
233 126 270
233 127 267
233 128 240
233 129 183
233 130 174
233 131 174
233 132 174
233 133 174
233 134 174
233 135 174
233 136 174
233 137 174
233 138 171
233 139 171
233 140 171
233 141 171
233 142 171
233 143 171
233 144 171
233 145 171
233 146 168
233 147 168
233 148 168
233 149 168
233 150 168
233 151 168
233 152 168
233 153 168
233 154 153
233 155 99
233 156 60
233 157 57
233 158 57
233 159 57
233 160 57
233 161 57
233 162 57
233 163 57
233 164 57
233 165 57
233 166 57
233 167 57
233 168 57
233 169 57
233 170 57
233 171 57
233 172 57
233 173 57
233 174 57
233 175 57
233 176 57
233 177 57
233 178 57
233 179 57
233 180 57
233 181 57
233 182 57
233 183 57
233 184 57
233 185 57
233 186 57
233 187 57
233 188 57
233 189 57
233 190 57
233 191 57
233 192 57
233 193 57
233 194 57
233 195 57
233 196 60
233 197 60
233 198 60
233 199 60
233 200 60
233 201 60
233 202 60
233 203 60
233 204 60
233 205 60
233 206 60
233 207 60
233 208 60
233 209 60
233 210 60
233 211 60
233 212 60
233 213 60
233 214 60
233 215 60
233 216 60
233 217 60
233 218 60
233 219 60
233 220 63
233 221 63
233 222 63
233 223 63
233 224 63
233 225 63
233 226 63
233 227 63
233 228 63
233 229 63
233 230 63
233 231 63
233 232 63
233 233 63
233 234 63
233 235 63
233 236 66
233 237 66
233 238 66
233 239 66
233 240 66
233 241 66
233 242 66
233 243 66
233 244 66
233 245 66
233 246 66
233 247 66
233 248 66
233 249 72
233 250 69
233 251 66
233 252 69
233 253 69
233 254 69
233 255 69
233 256 69
233 257 69
233 258 69
233 259 102
233 260 438
233 261 687
233 262 759
233 263 765
233 264 765
233 265 765
233 266 765
233 267 765
233 268 765
233 269 765
233 270 765
233 271 765
233 272 765
233 273 765
233 274 765
233 275 765
233 276 765
233 277 765
233 278 765
233 279 765
233 280 765
233 281 765
233 282 765
233 283 765
233 284 765
233 285 765
233 286 765
233 287 765
233 288 765
233 289 765
233 290 765
233 291 765
233 292 765
233 293 765
233 294 765
233 295 765
233 296 765
233 297 765
233 298 765
233 299 765
233 300 765
233 301 765
233 302 765
233 303 765
233 304 765
233 305 765
233 306 765
233 307 765
233 308 765
233 309 765
233 310 765
233 311 765
233 312 765
233 313 765
233 314 765
233 315 765
233 316 765
233 317 765
233 318 765
233 319 765
233 320 765
233 321 765
233 322 765
233 323 765
233 324 765
233 325 765
233 326 765
233 327 765
233 328 765
233 329 765
234 0 765
234 1 765
234 2 765
234 3 765
234 4 765
234 5 765
234 6 765
234 7 765
234 8 765
234 9 765
234 10 765
234 11 765
234 12 765
234 13 765
234 14 765
234 15 765
234 16 765
234 17 765
234 18 765
234 19 765
234 20 765
234 21 765
234 22 765
234 23 765
234 24 765
234 25 765
234 26 765
234 27 765
234 28 765
234 29 765
234 30 765
234 31 765
234 32 765
234 33 765
234 34 765
234 35 765
234 36 765
234 37 765
234 38 765
234 39 765
234 40 765
234 41 765
234 42 765
234 43 765
234 44 765
234 45 765
234 46 765
234 47 765
234 48 765
234 49 765
234 50 765
234 51 765
234 52 765
234 53 765
234 54 765
234 55 765
234 56 765
234 57 765
234 58 765
234 59 765
234 60 765
234 61 765
234 62 765
234 63 765
234 64 765
234 65 765
234 66 765
234 67 765
234 68 765
234 69 765
234 70 765
234 71 765
234 72 765
234 73 765
234 74 765
234 75 765
234 76 765
234 77 765
234 78 765
234 79 765
234 80 765
234 81 756
234 82 639
234 83 267
234 84 78
234 85 69
234 86 69
234 87 69
234 88 66
234 89 66
234 90 66
234 91 66
234 92 66
234 93 66
234 94 66
234 95 69
234 96 72
234 97 81
234 98 90
234 99 105
234 100 132
234 101 180
234 102 261
234 103 285
234 104 285
234 105 282
234 106 282
234 107 282
234 108 279
234 109 279
234 110 282
234 111 279
234 112 276
234 113 276
234 114 276
234 115 273
234 116 273
234 117 273
234 118 273
234 119 270
234 120 270
234 121 270
234 122 267
234 123 267
234 124 267
234 125 270
234 126 267
234 127 258
234 128 204
234 129 177
234 130 174
234 131 174
234 132 174
234 133 174
234 134 174
234 135 174
234 136 174
234 137 174
234 138 171
234 139 171
234 140 171
234 141 171
234 142 171
234 143 171
234 144 171
234 145 171
234 146 168
234 147 168
234 148 168
234 149 168
234 150 168
234 151 168
234 152 168
234 153 159
234 154 102
234 155 60
234 156 57
234 157 57
234 158 54
234 159 57
234 160 57
234 161 57
234 162 57
234 163 57
234 164 57
234 165 57
234 166 57
234 167 57
234 168 57
234 169 57
234 170 57
234 171 57
234 172 57
234 173 57
234 174 57
234 175 57
234 176 57
234 177 57
234 178 57
234 179 57
234 180 57
234 181 57
234 182 57
234 183 57
234 184 57
234 185 57
234 186 57
234 187 57
234 188 57
234 189 57
234 190 57
234 191 57
234 192 57
234 193 57
234 194 57
234 195 57
234 196 60
234 197 60
234 198 60
234 199 60
234 200 60
234 201 60
234 202 60
234 203 60
234 204 60
234 205 60
234 206 60
234 207 60
234 208 60
234 209 60
234 210 60
234 211 60
234 212 60
234 213 60
234 214 60
234 215 60
234 216 60
234 217 60
234 218 60
234 219 60
234 220 63
234 221 63
234 222 63
234 223 63
234 224 63
234 225 63
234 226 63
234 227 63
234 228 63
234 229 63
234 230 63
234 231 63
234 232 63
234 233 63
234 234 63
234 235 63
234 236 66
234 237 66
234 238 66
234 239 66
234 240 66
234 241 66
234 242 66
234 243 66
234 244 66
234 245 66
234 246 66
234 247 66
234 248 66
234 249 69
234 250 69
234 251 69
234 252 69
234 253 69
234 254 69
234 255 69
234 256 69
234 257 66
234 258 129
234 259 489
234 260 714
234 261 762
234 262 765
234 263 765
234 264 765
234 265 765
234 266 765
234 267 765
234 268 765
234 269 765
234 270 765
234 271 765
234 272 765
234 273 765
234 274 765
234 275 765
234 276 765
234 277 765
234 278 765
234 279 765
234 280 765
234 281 765
234 282 765
234 283 765
234 284 765
234 285 765
234 286 765
234 287 765
234 288 765
234 289 765
234 290 765
234 291 765
234 292 765
234 293 765
234 294 765
234 295 765
234 296 765
234 297 765
234 298 765
234 299 765
234 300 765
234 301 765
234 302 765
234 303 765
234 304 765
234 305 765
234 306 765
234 307 765
234 308 765
234 309 765
234 310 765
234 311 765
234 312 765
234 313 765
234 314 765
234 315 765
234 316 765
234 317 765
234 318 765
234 319 765
234 320 765
234 321 765
234 322 765
234 323 765
234 324 765
234 325 765
234 326 765
234 327 765
234 328 765
234 329 765
235 0 765
235 1 765
235 2 765
235 3 765
235 4 765
235 5 765
235 6 765
235 7 765
235 8 765
235 9 765
235 10 765
235 11 765
235 12 765
235 13 765
235 14 765
235 15 765
235 16 765
235 17 765
235 18 765
235 19 765
235 20 765
235 21 765
235 22 765
235 23 765
235 24 765
235 25 765
235 26 765
235 27 765
235 28 765
235 29 765
235 30 765
235 31 765
235 32 765
235 33 765
235 34 765
235 35 765
235 36 765
235 37 765
235 38 765
235 39 765
235 40 765
235 41 765
235 42 765
235 43 765
235 44 765
235 45 765
235 46 765
235 47 765
235 48 765
235 49 765
235 50 765
235 51 765
235 52 765
235 53 765
235 54 765
235 55 765
235 56 765
235 57 765
235 58 765
235 59 765
235 60 765
235 61 765
235 62 765
235 63 765
235 64 765
235 65 765
235 66 765
235 67 765
235 68 765
235 69 765
235 70 765
235 71 765
235 72 765
235 73 765
235 74 765
235 75 765
235 76 765
235 77 765
235 78 765
235 79 765
235 80 765
235 81 765
235 82 765
235 83 702
235 84 315
235 85 87
235 86 69
235 87 69
235 88 66
235 89 66
235 90 66
235 91 66
235 92 66
235 93 66
235 94 66
235 95 72
235 96 72
235 97 87
235 98 105
235 99 129
235 100 171
235 101 255
235 102 285
235 103 285
235 104 282
235 105 282
235 106 282
235 107 282
235 108 279
235 109 279
235 110 279
235 111 276
235 112 276
235 113 276
235 114 276
235 115 273
235 116 273
235 117 273
235 118 270
235 119 270
235 120 273
235 121 270
235 122 270
235 123 267
235 124 267
235 125 264
235 126 267
235 127 237
235 128 180
235 129 174
235 130 174
235 131 174
235 132 174
235 133 174
235 134 174
235 135 174
235 136 174
235 137 171
235 138 171
235 139 171
235 140 171
235 141 171
235 142 171
235 143 171
235 144 171
235 145 171
235 146 168
235 147 168
235 148 168
235 149 168
235 150 168
235 151 168
235 152 162
235 153 108
235 154 60
235 155 57
235 156 57
235 157 57
235 158 57
235 159 57
235 160 57
235 161 57
235 162 57
235 163 57
235 164 57
235 165 57
235 166 57
235 167 57
235 168 57
235 169 57
235 170 57
235 171 57
235 172 57
235 173 57
235 174 57
235 175 57
235 176 57
235 177 57
235 178 57
235 179 57
235 180 57
235 181 57
235 182 57
235 183 57
235 184 57
235 185 57
235 186 57
235 187 57
235 188 57
235 189 57
235 190 57
235 191 57
235 192 57
235 193 57
235 194 57
235 195 57
235 196 60
235 197 60
235 198 60
235 199 60
235 200 60
235 201 60
235 202 60
235 203 60
235 204 60
235 205 60
235 206 60
235 207 60
235 208 60
235 209 60
235 210 60
235 211 60
235 212 60
235 213 60
235 214 60
235 215 60
235 216 60
235 217 60
235 218 60
235 219 60
235 220 63
235 221 63
235 222 63
235 223 63
235 224 63
235 225 63
235 226 63
235 227 63
235 228 63
235 229 63
235 230 63
235 231 63
235 232 63
235 233 63
235 234 63
235 235 63
235 236 66
235 237 66
235 238 66
235 239 66
235 240 66
235 241 66
235 242 66
235 243 66
235 244 66
235 245 66
235 246 66
235 247 66
235 248 63
235 249 69
235 250 69
235 251 69
235 252 69
235 253 69
235 254 69
235 255 69
235 256 69
235 257 162
235 258 534
235 259 747
235 260 765
235 261 765
235 262 765
235 263 765
235 264 765
235 265 765
235 266 765
235 267 765
235 268 765
235 269 765
235 270 765
235 271 765
235 272 765
235 273 765
235 274 765
235 275 765
235 276 765
235 277 765
235 278 765
235 279 765
235 280 765
235 281 765
235 282 765
235 283 765
235 284 765
235 285 765
235 286 765
235 287 765
235 288 765
235 289 765
235 290 765
235 291 765
235 292 765
235 293 765
235 294 765
235 295 765
235 296 765
235 297 765
235 298 765
235 299 765
235 300 765
235 301 765
235 302 765
235 303 765
235 304 765
235 305 765
235 306 765
235 307 765
235 308 765
235 309 765
235 310 765
235 311 765
235 312 765
235 313 765
235 314 765
235 315 765
235 316 765
235 317 765
235 318 765
235 319 765
235 320 765
235 321 765
235 322 765
235 323 765
235 324 765
235 325 765
235 326 765
235 327 765
235 328 765
235 329 765
236 0 765
236 1 765
236 2 765
236 3 765
236 4 765
236 5 765
236 6 765
236 7 765
236 8 765
236 9 765
236 10 765
236 11 765
236 12 765
236 13 765
236 14 765
236 15 765
236 16 765
236 17 765
236 18 765
236 19 765
236 20 765
236 21 765
236 22 765
236 23 765
236 24 765
236 25 765
236 26 765
236 27 765
236 28 765
236 29 765
236 30 765
236 31 765
236 32 765
236 33 765
236 34 765
236 35 765
236 36 765
236 37 765
236 38 765
236 39 765
236 40 765
236 41 765
236 42 765
236 43 765
236 44 765
236 45 765
236 46 765
236 47 765
236 48 765
236 49 765
236 50 765
236 51 765
236 52 765
236 53 765
236 54 765
236 55 765
236 56 765
236 57 765
236 58 765
236 59 765
236 60 765
236 61 765
236 62 765
236 63 765
236 64 765
236 65 765
236 66 765
236 67 765
236 68 765
236 69 765
236 70 765
236 71 765
236 72 765
236 73 765
236 74 765
236 75 762
236 76 765
236 77 765
236 78 765
236 79 765
236 80 765
236 81 765
236 82 765
236 83 765
236 84 738
236 85 417
236 86 111
236 87 72
236 88 66
236 89 66
236 90 66
236 91 66
236 92 66
236 93 72
236 94 69
236 95 78
236 96 87
236 97 102
236 98 120
236 99 162
236 100 240
236 101 285
236 102 285
236 103 285
236 104 285
236 105 282
236 106 282
236 107 279
236 108 279
236 109 279
236 110 279
236 111 276
236 112 276
236 113 276
236 114 273
236 115 273
236 116 273
236 117 273
236 118 270
236 119 270
236 120 270
236 121 273
236 122 267
236 123 267
236 124 267
236 125 267
236 126 261
236 127 192
236 128 174
236 129 174
236 130 174
236 131 174
236 132 177
236 133 174
236 134 171
236 135 174
236 136 174
236 137 171
236 138 171
236 139 171
236 140 171
236 141 171
236 142 171
236 143 171
236 144 171
236 145 171
236 146 168
236 147 168
236 148 171
236 149 168
236 150 168
236 151 165
236 152 120
236 153 57
236 154 57
236 155 57
236 156 57
236 157 57
236 158 57
236 159 57
236 160 57
236 161 57
236 162 57
236 163 57
236 164 57
236 165 57
236 166 57
236 167 57
236 168 57
236 169 57
236 170 57
236 171 57
236 172 57
236 173 57
236 174 57
236 175 57
236 176 57
236 177 57
236 178 57
236 179 57
236 180 57
236 181 57
236 182 57
236 183 57
236 184 57
236 185 57
236 186 57
236 187 57
236 188 57
236 189 57
236 190 57
236 191 57
236 192 57
236 193 57
236 194 57
236 195 57
236 196 60
236 197 60
236 198 60
236 199 60
236 200 60
236 201 60
236 202 60
236 203 60
236 204 60
236 205 60
236 206 60
236 207 60
236 208 60
236 209 60
236 210 60
236 211 60
236 212 60
236 213 60
236 214 60
236 215 60
236 216 60
236 217 60
236 218 60
236 219 60
236 220 63
236 221 63
236 222 63
236 223 63
236 224 63
236 225 63
236 226 63
236 227 63
236 228 63
236 229 63
236 230 63
236 231 63
236 232 63
236 233 63
236 234 63
236 235 63
236 236 66
236 237 66
236 238 66
236 239 66
236 240 66
236 241 66
236 242 66
236 243 66
236 244 66
236 245 66
236 246 66
236 247 66
236 248 66
236 249 69
236 250 69
236 251 69
236 252 69
236 253 69
236 254 72
236 255 81
236 256 225
236 257 588
236 258 759
236 259 765
236 260 765
236 261 765
236 262 765
236 263 765
236 264 765
236 265 765
236 266 765
236 267 765
236 268 765
236 269 765
236 270 765
236 271 765
236 272 765
236 273 765
236 274 765
236 275 765
236 276 765
236 277 765
236 278 765
236 279 765
236 280 765
236 281 765
236 282 765
236 283 765
236 284 765
236 285 765
236 286 765
236 287 765
236 288 765
236 289 765
236 290 765
236 291 765
236 292 765
236 293 765
236 294 765
236 295 765
236 296 765
236 297 765
236 298 765
236 299 765
236 300 765
236 301 765
236 302 765
236 303 765
236 304 765
236 305 765
236 306 765
236 307 765
236 308 765
236 309 765
236 310 765
236 311 765
236 312 765
236 313 765
236 314 765
236 315 765
236 316 765
236 317 765
236 318 765
236 319 765
236 320 765
236 321 765
236 322 765
236 323 765
236 324 765
236 325 765
236 326 765
236 327 765
236 328 765
236 329 765
237 0 765
237 1 765
237 2 765
237 3 765
237 4 765
237 5 765
237 6 765
237 7 765
237 8 765
237 9 765
237 10 765
237 11 765
237 12 765
237 13 765
237 14 765
237 15 765
237 16 765
237 17 765
237 18 765
237 19 765
237 20 765
237 21 765
237 22 765
237 23 765
237 24 765
237 25 765
237 26 765
237 27 765
237 28 765
237 29 765
237 30 765
237 31 765
237 32 765
237 33 765
237 34 765
237 35 765
237 36 765
237 37 765
237 38 765
237 39 765
237 40 765
237 41 765
237 42 765
237 43 765
237 44 765
237 45 765
237 46 765
237 47 765
237 48 765
237 49 765
237 50 765
237 51 765
237 52 765
237 53 765
237 54 765
237 55 765
237 56 765
237 57 765
237 58 765
237 59 765
237 60 765
237 61 765
237 62 765
237 63 765
237 64 765
237 65 765
237 66 765
237 67 765
237 68 765
237 69 765
237 70 765
237 71 765
237 72 765
237 73 765
237 74 765
237 75 765
237 76 765
237 77 765
237 78 765
237 79 765
237 80 765
237 81 765
237 82 765
237 83 765
237 84 765
237 85 759
237 86 519
237 87 153
237 88 75
237 89 66
237 90 63
237 91 66
237 92 69
237 93 69
237 94 78
237 95 84
237 96 96
237 97 123
237 98 162
237 99 234
237 100 285
237 101 285
237 102 285
237 103 282
237 104 282
237 105 282
237 106 282
237 107 279
237 108 279
237 109 279
237 110 279
237 111 276
237 112 276
237 113 276
237 114 273
237 115 273
237 116 273
237 117 273
237 118 270
237 119 270
237 120 270
237 121 270
237 122 267
237 123 267
237 124 267
237 125 267
237 126 231
237 127 177
237 128 174
237 129 174
237 130 174
237 131 174
237 132 174
237 133 174
237 134 174
237 135 174
237 136 174
237 137 171
237 138 171
237 139 171
237 140 171
237 141 171
237 142 171
237 143 171
237 144 171
237 145 171
237 146 165
237 147 168
237 148 168
237 149 165
237 150 165
237 151 126
237 152 60
237 153 57
237 154 57
237 155 57
237 156 57
237 157 57
237 158 57
237 159 57
237 160 57
237 161 57
237 162 57
237 163 57
237 164 57
237 165 57
237 166 57
237 167 57
237 168 57
237 169 57
237 170 57
237 171 57
237 172 57
237 173 57
237 174 57
237 175 57
237 176 57
237 177 57
237 178 57
237 179 57
237 180 57
237 181 57
237 182 57
237 183 57
237 184 57
237 185 57
237 186 57
237 187 57
237 188 57
237 189 57
237 190 57
237 191 57
237 192 57
237 193 57
237 194 57
237 195 57
237 196 60
237 197 60
237 198 60
237 199 60
237 200 60
237 201 60
237 202 60
237 203 60
237 204 60
237 205 60
237 206 60
237 207 60
237 208 60
237 209 60
237 210 60
237 211 60
237 212 60
237 213 60
237 214 60
237 215 60
237 216 60
237 217 60
237 218 60
237 219 60
237 220 63
237 221 63
237 222 63
237 223 63
237 224 63
237 225 63
237 226 63
237 227 63
237 228 63
237 229 63
237 230 63
237 231 63
237 232 63
237 233 63
237 234 63
237 235 63
237 236 66
237 237 66
237 238 66
237 239 66
237 240 66
237 241 66
237 242 66
237 243 66
237 244 66
237 245 66
237 246 66
237 247 66
237 248 66
237 249 69
237 250 72
237 251 72
237 252 69
237 253 72
237 254 102
237 255 303
237 256 648
237 257 765
237 258 765
237 259 765
237 260 765
237 261 765
237 262 765
237 263 762
237 264 765
237 265 765
237 266 765
237 267 765
237 268 765
237 269 765
237 270 765
237 271 765
237 272 765
237 273 765
237 274 765
237 275 765
237 276 765
237 277 765
237 278 765
237 279 765
237 280 765
237 281 765
237 282 765
237 283 765
237 284 765
237 285 765
237 286 765
237 287 765
237 288 765
237 289 765
237 290 765
237 291 765
237 292 765
237 293 765
237 294 765
237 295 765
237 296 765
237 297 765
237 298 765
237 299 765
237 300 765
237 301 765
237 302 765
237 303 765
237 304 765
237 305 765
237 306 765
237 307 765
237 308 765
237 309 765
237 310 765
237 311 765
237 312 765
237 313 765
237 314 765
237 315 765
237 316 765
237 317 765
237 318 765
237 319 765
237 320 765
237 321 765
237 322 765
237 323 765
237 324 765
237 325 765
237 326 765
237 327 765
237 328 765
237 329 765
238 0 765
238 1 765
238 2 765
238 3 765
238 4 765
238 5 765
238 6 765
238 7 765
238 8 765
238 9 765
238 10 765
238 11 765
238 12 765
238 13 765
238 14 765
238 15 765
238 16 765
238 17 765
238 18 765
238 19 765
238 20 765
238 21 765
238 22 765
238 23 765
238 24 765
238 25 765
238 26 765
238 27 765
238 28 765
238 29 765
238 30 765
238 31 765
238 32 765
238 33 765
238 34 765
238 35 765
238 36 765
238 37 765
238 38 765
238 39 765
238 40 765
238 41 765
238 42 765
238 43 765
238 44 765
238 45 765
238 46 765
238 47 765
238 48 765
238 49 765
238 50 765
238 51 765
238 52 765
238 53 765
238 54 765
238 55 765
238 56 765
238 57 765
238 58 765
238 59 765
238 60 765
238 61 765
238 62 765
238 63 765
238 64 765
238 65 765
238 66 765
238 67 765
238 68 765
238 69 765
238 70 765
238 71 765
238 72 765
238 73 765
238 74 765
238 75 765
238 76 765
238 77 765
238 78 765
238 79 765
238 80 765
238 81 765
238 82 765
238 83 765
238 84 765
238 85 765
238 86 765
238 87 612
238 88 252
238 89 99
238 90 66
238 91 69
238 92 69
238 93 75
238 94 84
238 95 96
238 96 120
238 97 159
238 98 222
238 99 282
238 100 285
238 101 285
238 102 285
238 103 282
238 104 282
238 105 282
238 106 279
238 107 279
238 108 279
238 109 279
238 110 276
238 111 276
238 112 276
238 113 273
238 114 273
238 115 273
238 116 273
238 117 273
238 118 270
238 119 270
238 120 270
238 121 270
238 122 267
238 123 270
238 124 267
238 125 261
238 126 189
238 127 177
238 128 174
238 129 174
238 130 171
238 131 174
238 132 174
238 133 174
238 134 174
238 135 174
238 136 174
238 137 171
238 138 171
238 139 171
238 140 171
238 141 171
238 142 171
238 143 171
238 144 171
238 145 168
238 146 168
238 147 168
238 148 168
238 149 165
238 150 129
238 151 63
238 152 57
238 153 57
238 154 57
238 155 57
238 156 57
238 157 57
238 158 57
238 159 57
238 160 57
238 161 57
238 162 57
238 163 57
238 164 57
238 165 57
238 166 57
238 167 57
238 168 57
238 169 57
238 170 57
238 171 57
238 172 57
238 173 57
238 174 57
238 175 57
238 176 57
238 177 57
238 178 57
238 179 57
238 180 57
238 181 57
238 182 57
238 183 57
238 184 57
238 185 57
238 186 57
238 187 57
238 188 57
238 189 57
238 190 57
238 191 57
238 192 57
238 193 57
238 194 57
238 195 57
238 196 60
238 197 60
238 198 60
238 199 60
238 200 60
238 201 60
238 202 60
238 203 60
238 204 60
238 205 60
238 206 60
238 207 60
238 208 60
238 209 60
238 210 60
238 211 60
238 212 60
238 213 60
238 214 60
238 215 60
238 216 60
238 217 60
238 218 60
238 219 60
238 220 63
238 221 63
238 222 63
238 223 63
238 224 63
238 225 63
238 226 63
238 227 63
238 228 63
238 229 63
238 230 63
238 231 63
238 232 63
238 233 63
238 234 63
238 235 63
238 236 66
238 237 66
238 238 66
238 239 66
238 240 66
238 241 66
238 242 66
238 243 66
238 244 66
238 245 66
238 246 66
238 247 66
238 248 66
238 249 69
238 250 69
238 251 69
238 252 69
238 253 147
